0.0 112.89161254770156 272.54446209082954
0.0 57.74673531677398 290.3124429993562
0.0 -5.272104470329355e-14 287.0
0.0 -55.210561130564415 277.5622343541142
0.0 -107.91672792695525 260.5340281681829
0.0 -150.0039629152926 224.49679532168722
0.0 -186.67619023324858 186.67619023324852
0.0 -214.51915997405666 143.3371201190574
0.0 -214.34005154261854 88.7825563087008
0.0 -222.6382586515333 44.285503097661135
0.0 -216.0 -2.645237086158283e-14
0.0 -202.04176776306548 -40.188606335322405
0.0 -192.16694276234765 -79.5981539319387
0.0 -172.94567935892943 -115.55860846807725
0.0 -148.49242404917496 -148.49242404917499
0.0 -122.2254512643125 -182.92331470655992
0.0 -81.51157109376412 -196.78634042490407
0.0 -41.749328911451435 -209.8880500062913
0.0 1.359357947053562e-14 -222.0
0.0 44.67568374169339 -224.59982921233976
0.0 89.93060660579611 -217.11169014015238
0.0 128.89229406054773 -192.9009500541905
0.0 163.3416664540925 -163.34166645409246
0.0 189.5750716049803 -126.6700131284693
0.0 213.41617201010723 -88.39987287633573
0.0 230.48454089475916 -45.84622567379014
0.0 238.0 0.0
0.0 322.6925912536911 52.90077078812967
0.0 230.48454089475916 45.84622567379014
0.0 309.9169349465005 116.24325113040574
0.0 214.3400515426185 88.78255630870083
0.0 283.8334367746996 176.0527766570656
0.0 189.5750716049803 126.6700131284693
0.0 243.3028248712982 227.36036464090745
0.0 268.0845208469176 252.10055470442464
0.0 171.11984104714452 171.1198410471445
0.0 196.60562043141746 273.7064668851969
0.0 222.46364910530613 311.76742104772785
0.0 138.60293558867934 304.9823375971146
0.0 157.77714387978813 350.0890927594526
0.0 86.8967486817319 376.091684391644
0.0 44.61265593621457 361.2557417264353
0.0 12.070194956244348 392.8146005353139
0.0 -27.97007114546591 379.97193991151187
0.0 -62.158049941803576 371.8405260692173
0.0 -101.82804775577517 368.1780122308332
0.0 -127.84014327947949 337.60612815273686
0.0 -167.65414310599326 333.1982717533138
0.0 -188.06879156600178 301.0899029175568
0.0 -293.9997509764385 -110.27305394243935
0.0 -275.5052077489097 -152.71503037759615
0.0 -267.68722330548013 -166.03779834423852
0.0 -236.60206563258393 -200.29843368931884
0.0 -230.8819599379286 -215.7533790586389
0.0 -194.22456663093732 -244.1737449379531
0.0 -182.60403321968442 -254.21401820494557
0.0 -146.06177892230917 -283.59646813394994
0.0 -130.32813346398217 -286.77443684504806
0.0 -88.75522857307364 -309.5262660921387
0.0 -73.9306261993444 -315.4524726639067
0.0 -26.99547564897873 -324.8803538142702
0.0 -11.036051310787387 -325.81314517905145
0.0 37.47026375717708 -328.8722842289505
0.0 52.900770788129776 -322.6925912536911
0.0 100.60521867924359 -314.29061388228183
0.0 114.13612271112336 -304.2991053100081
0.0 170.78173543978815 -275.3354296856367
0.0 219.84996220532193 -235.26579462029437
0.0 257.46275965165415 -184.93763108830657
0.0 293.1472021082713 -133.22431420762624
0.0 312.5316164355372 -73.24608336416532
0.0 321.81543787624105 -10.900639638262408
100.0 230.5168106668145 230.51681066681448
100.0 -237.22848949937014 -355.0375244531868
100.0 -135.0872516248766 -326.12947497648423
100.0 -79.98703202661275 -402.1219649653244
100.0 -6.83352913924223e-14 -372.0
100.0 73.93923204411263 -371.7176212728243
100.0 147.33312146055965 -355.69362001684533
100.0 214.4501099455663 -320.9472703487825
100.0 270.11479041326106 -270.11479041326123
100.0 350.04870677937157 -233.89506810125252
100.0 449.0054528004854 -185.98414812943352
200.0 317.1419340993721 23.34509875133381
200.0 175.56056519217825 34.92116764088696
200.0 430.56473809701816 85.6446513650803
200.0 314.2042722179362 86.90037583346266
200.0 233.74152172535554 96.81890838836772
200.0 357.54137908186794 148.09848832528974
200.0 302.82631132539774 152.3719960132218
200.0 389.12777855759117 260.00686905317383
200.0 267.7332151614196 178.8936150323119
200.0 268.0697272726278 209.13780461690553
200.0 228.39549032325488 228.39549032325482
200.0 220.15821556181203 255.1457624979077
200.0 185.00488759552755 276.8793808967476
200.0 167.1375303420108 294.93396879839634
200.0 195.6053584358115 -250.72403903734022
200.0 240.76068983482082 -207.74573456574552
200.0 277.5337346509983 -157.27690908289514
200.0 303.8336848649213 -100.42455845759895
200.0 315.6025435961715 -38.97479282339638
